ply
format ascii 1.0
element vertex 2942
property float x
property float y
property float z
end_header
188.0 0.0 0.0
43.0 67.0 40.0
241.0 138.0 192.0
240.0 172.0 241.0
192.0 112.0 17.0
241.0 188.0 0.0
0.0 50.0 67.0
26.0 69.0 139.0
192.0 46.0 187.0
241.0 192.0 0.0
216.0 240.0 187.0
0.0 0.0 99.0
67.0 114.0 187.0
139.0 192.0 158.0
11.0 242.0 192.0
192.0 220.0 77.0
60.0 0.0 0.0
127.0 67.0 161.0
230.0 139.0 192.0
184.0 201.0 241.0
192.0 168.0 153.0
24.0 61.0 0.0
0.0 127.0 67.0
20.0 52.0 140.0
192.0 4.0 202.0
241.0 192.0 140.0
193.0 116.0 61.0
0.0 0.0 127.0
67.0 57.0 127.0
140.0 192.0 173.0
197.0 241.0 192.0
202.0 174.0 168.0
61.0 0.0 0.0
126.0 67.0 152.0
92.0 140.0 192.0
170.0 253.0 240.0
192.0 216.0 161.0
222.0 61.0 0.0
0.0 117.0 67.0
98.0 197.0 140.0
192.0 7.0 48.0
241.0 192.0 173.0
244.0 4.0 62.0
0.0 0.0 113.0
67.0 200.0 226.0
140.0 192.0 211.0
222.0 240.0 192.0
252.0 176.0 28.0
62.0 0.0 0.0
119.0 67.0 48.0
34.0 141.0 192.0
187.0 200.0 240.0
192.0 51.0 118.0
51.0 62.0 0.0
0.0 114.0 67.0
15.0 95.0 141.0
192.0 56.0 174.0
240.0 192.0 100.0
68.0 74.0 62.0
0.0 0.0 114.0
67.0 86.0 153.0
141.0 192.0 79.0
143.0 240.0 192.0
178.0 23.0 97.0
62.0 0.0 0.0
109.0 67.0 249.0
208.0 141.0 192.0
10.0 108.0 240.0
192.0 55.0 236.0
119.0 62.0 0.0
0.0 108.0 67.0
221.0 221.0 141.0
192.0 153.0 6.0
240.0 192.0 85.0
50.0 135.0 62.0
0.0 0.0 100.0
67.0 143.0 15.0
142.0 192.0 36.0
219.0 239.0 192.0
232.0 122.0 146.0
62.0 0.0 0.0
90.0 67.0 231.0
16.0 142.0 192.0
198.0 103.0 239.0
192.0 3.0 76.0
157.0 62.0 0.0
0.0 75.0 67.0
17.0 48.0 19.0
192.0 196.0 6.0
163.0 192.0 81.0
223.0 12.0 62.0
0.0 0.0 84.0
67.0 25.0 193.0
18.0 192.0 60.0
201.0 163.0 192.0
234.0 83.0 165.0
61.0 0.0 0.0
63.0 67.0 128.0
147.0 17.0 192.0
150.0 45.0 164.0
192.0 128.0 4.0
187.0 60.0 0.0
0.0 68.0 67.0
81.0 13.0 16.0
192.0 198.0 105.0
164.0 192.0 176.0
10.0 21.0 189.0
0.0 0.0 83.0
67.0 177.0 24.0
17.0 192.0 116.0
220.0 165.0 192.0
36.0 6.0 182.0
189.0 0.0 0.0
44.0 67.0 40.0
113.0 32.0 192.0
110.0 211.0 173.0
192.0 48.0 113.0
184.0 189.0 0.0
0.0 80.0 67.0
139.0 176.0 46.0
192.0 172.0 5.0
181.0 192.0 184.0
60.0 163.0 189.0
0.0 0.0 106.0
67.0 94.0 93.0
56.0 192.0 215.0
243.0 185.0 192.0
132.0 33.0 154.0
189.0 0.0 0.0
117.0 67.0 192.0
216.0 67.0 192.0
84.0 126.0 191.0
192.0 184.0 15.0
85.0 189.0 0.0
0.0 2.0 67.0
216.0 207.0 73.0
192.0 246.0 127.0
194.0 192.0 72.0
69.0 66.0 189.0
0.0 0.0 246.0
66.0 20.0 143.0
78.0 192.0 199.0
229.0 196.0 192.0
16.0 208.0 52.0
189.0 0.0 0.0
0.0 67.0 56.0
103.0 82.0 192.0
200.0 216.0 198.0
192.0 168.0 239.0
43.0 189.0 0.0
0.0 254.0 66.0
160.0 64.0 87.0
192.0 55.0 113.0
201.0 192.0 48.0
68.0 66.0 189.0
0.0 0.0 105.0
67.0 200.0 56.0
91.0 192.0 199.0
68.0 203.0 192.0
192.0 243.0 12.0
189.0 0.0 0.0
60.0 67.0 134.0
144.0 92.0 192.0
89.0 12.0 204.0
192.0 192.0 101.0
34.0 189.0 0.0
0.0 68.0 67.0
183.0 100.0 94.0
192.0 193.0 251.0
204.0 192.0 104.0
6.0 33.0 189.0
0.0 0.0 87.0
67.0 96.0 167.0
96.0 192.0 244.0
10.0 206.0 192.0
80.0 253.0 7.0
189.0 0.0 0.0
106.0 67.0 253.0
156.0 97.0 192.0
179.0 156.0 206.0
192.0 216.0 0.0
27.0 189.0 0.0
0.0 120.0 67.0
54.0 12.0 99.0
192.0 251.0 83.0
207.0 192.0 96.0
81.0 22.0 189.0
0.0 0.0 122.0
67.0 141.0 124.0
100.0 192.0 203.0
5.0 208.0 192.0
112.0 11.0 12.0
189.0 0.0 0.0
123.0 67.0 33.0
120.0 101.0 192.0
19.0 140.0 208.0
192.0 40.0 198.0
17.0 189.0 0.0
0.0 124.0 67.0
182.0 128.0 102.0
192.0 155.0 18.0
209.0 192.0 248.0
132.0 17.0 189.0
0.0 0.0 125.0
67.0 170.0 22.0
103.0 192.0 22.0
114.0 209.0 192.0
112.0 144.0 36.0
189.0 0.0 0.0
125.0 67.0 157.0
124.0 104.0 192.0
53.0 13.0 210.0
192.0 40.0 71.0
10.0 189.0 0.0
0.0 106.0 67.0
38.0 32.0 105.0
192.0 181.0 106.0
210.0 192.0 176.0
14.0 21.0 189.0
0.0 0.0 107.0
67.0 218.0 185.0
105.0 192.0 59.0
195.0 210.0 192.0
88.0 27.0 32.0
189.0 0.0 0.0
107.0 67.0 133.0
184.0 106.0 192.0
217.0 52.0 211.0
192.0 208.0 102.0
17.0 189.0 0.0
0.0 108.0 67.0
11.0 241.0 106.0
192.0 29.0 111.0
211.0 192.0 40.0
235.0 47.0 189.0
0.0 0.0 107.0
67.0 6.0 142.0
107.0 192.0 74.0
194.0 211.0 192.0
192.0 187.0 52.0
189.0 0.0 0.0
107.0 67.0 236.0
149.0 108.0 192.0
255.0 44.0 212.0
192.0 240.0 22.0
27.0 189.0 0.0
0.0 108.0 67.0
53.0 50.0 109.0
192.0 183.0 122.0
212.0 192.0 160.0
53.0 27.0 189.0
0.0 0.0 108.0
67.0 195.0 113.0
109.0 192.0 254.0
177.0 212.0 192.0
224.0 49.0 52.0
189.0 0.0 0.0
107.0 67.0 63.0
180.0 109.0 192.0
184.0 233.0 212.0
192.0 168.0 111.0
76.0 189.0 0.0
0.0 106.0 67.0
151.0 172.0 110.0
192.0 32.0 69.0
213.0 192.0 208.0
8.0 44.0 189.0
0.0 0.0 107.0
67.0 93.0 241.0
110.0 192.0 238.0
122.0 213.0 192.0
48.0 168.0 65.0
189.0 0.0 0.0
107.0 67.0 81.0
152.0 111.0 192.0
162.0 193.0 213.0
192.0 248.0 75.0
54.0 189.0 0.0
0.0 107.0 67.0
108.0 52.0 112.0
192.0 16.0 4.0
214.0 192.0 120.0
84.0 44.0 189.0
0.0 0.0 107.0
67.0 46.0 207.0
112.0 192.0 250.0
67.0 214.0 192.0
224.0 162.0 32.0
189.0 0.0 0.0
106.0 67.0 91.0
104.0 113.0 192.0
81.0 129.0 214.0
192.0 96.0 67.0
19.0 189.0 0.0
0.0 109.0 67.0
148.0 177.0 113.0
192.0 154.0 178.0
214.0 192.0 248.0
41.0 35.0 189.0
0.0 0.0 109.0
67.0 250.0 252.0
113.0 192.0 252.0
227.0 214.0 192.0
40.0 85.0 50.0
189.0 0.0 0.0
108.0 67.0 128.0
74.0 114.0 192.0
109.0 21.0 215.0
192.0 104.0 194.0
64.0 189.0 0.0
0.0 107.0 67.0
26.0 154.0 114.0
192.0 229.0 70.0
215.0 192.0 56.0
111.0 78.0 189.0
0.0 0.0 107.0
67.0 186.0 235.0
114.0 192.0 89.0
120.0 215.0 192.0
88.0 89.0 91.0
189.0 0.0 0.0
107.0 67.0 82.0
63.0 115.0 192.0
193.0 169.0 215.0
192.0 152.0 126.0
103.0 189.0 0.0
0.0 107.0 67.0
212.0 148.0 115.0
192.0 20.0 219.0
215.0 192.0 216.0
220.0 114.0 189.0
0.0 0.0 106.0
67.0 91.0 42.0
116.0 192.0 11.0
12.0 216.0 192.0
200.0 4.0 92.0
189.0 0.0 0.0
106.0 67.0 6.0
129.0 116.0 192.0
184.0 59.0 216.0
192.0 128.0 137.0
101.0 189.0 0.0
0.0 107.0 67.0
98.0 217.0 116.0
192.0 54.0 107.0
216.0 192.0 160.0
71.0 110.0 189.0
0.0 0.0 106.0
67.0 247.0 111.0
117.0 192.0 169.0
149.0 216.0 192.0
240.0 66.0 80.0
189.0 0.0 0.0
107.0 67.0 126.0
252.0 117.0 192.0
124.0 189.0 216.0
192.0 168.0 209.0
52.0 189.0 0.0
0.0 107.0 67.0
175.0 34.0 118.0
192.0 104.0 240.0
216.0 192.0 176.0
98.0 93.0 189.0
0.0 0.0 106.0
67.0 44.0 126.0
118.0 192.0 85.0
29.0 217.0 192.0
96.0 203.0 98.0
189.0 0.0 0.0
106.0 67.0 119.0
50.0 119.0 192.0
132.0 54.0 217.0
192.0 184.0 176.0
33.0 189.0 0.0
0.0 107.0 67.0
246.0 138.0 119.0
192.0 24.0 96.0
217.0 192.0 168.0
81.0 37.0 189.0
0.0 0.0 106.0
67.0 126.0 190.0
119.0 192.0 155.0
149.0 217.0 192.0
72.0 74.0 75.0
189.0 0.0 0.0
105.0 67.0 18.0
28.0 120.0 192.0
174.0 191.0 217.0
192.0 240.0 132.0
77.0 189.0 0.0
0.0 105.0 67.0
6.0 155.0 120.0
192.0 108.0 218.0
217.0 192.0 208.0
204.0 43.0 189.0
0.0 0.0 105.0
67.0 177.0 247.0
120.0 192.0 76.0
2.0 218.0 192.0
176.0 124.0 44.0
189.0 0.0 0.0
105.0 67.0 62.0
85.0 121.0 192.0
174.0 41.0 218.0
192.0 176.0 111.0
44.0 189.0 0.0
0.0 105.0 67.0
156.0 179.0 121.0
192.0 138.0 80.0
218.0 192.0 200.0
165.0 43.0 189.0
0.0 0.0 105.0
67.0 188.0 18.0
122.0 192.0 217.0
118.0 218.0 192.0
56.0 31.0 42.0
189.0 0.0 0.0
105.0 67.0 139.0
114.0 122.0 192.0
149.0 156.0 218.0
192.0 56.0 220.0
39.0 189.0 0.0
0.0 106.0 67.0
248.0 210.0 122.0
192.0 182.0 193.0
218.0 192.0 16.0
221.0 36.0 189.0
0.0 0.0 106.0
67.0 243.0 51.0
123.0 192.0 54.0
230.0 218.0 192.0
104.0 34.0 33.0
189.0 0.0 0.0
106.0 67.0 162.0
157.0 123.0 192.0
148.0 241.0 218.0
192.0 80.0 237.0
243.0 188.0 0.0
0.0 106.0 67.0
73.0 247.0 123.0
192.0 59.0 45.0
219.0 192.0 224.0
124.0 23.0 189.0
0.0 0.0 105.0
67.0 130.0 89.0
124.0 192.0 179.0
79.0 219.0 192.0
208.0 147.0 17.0
189.0 0.0 0.0
105.0 67.0 1.0
188.0 124.0 192.0
114.0 113.0 219.0
192.0 80.0 242.0
10.0 189.0 0.0
0.0 105.0 67.0
180.0 30.0 125.0
192.0 113.0 146.0
219.0 192.0 184.0
153.0 3.0 189.0
0.0 0.0 105.0
67.0 226.0 136.0
125.0 192.0 124.0
208.0 219.0 192.0
120.0 53.0 29.0
189.0 0.0 0.0
105.0 67.0 233.0
238.0 125.0 192.0
235.0 240.0 219.0
192.0 120.0 43.0
20.0 189.0 0.0
0.0 106.0 67.0
86.0 71.0 126.0
192.0 187.0 240.0
219.0 192.0 240.0
163.0 210.0 188.0
0.0 0.0 106.0
67.0 152.0 203.0
126.0 192.0 248.0
79.0 220.0 192.0
216.0 179.0 32.0
189.0 0.0 0.0
104.0 67.0 141.0
74.0 127.0 192.0
30.0 148.0 220.0
192.0 168.0 52.0
57.0 189.0 0.0
0.0 102.0 67.0
47.0 157.0 127.0
192.0 150.0 140.0
220.0 192.0 160.0
237.0 8.0 189.0
0.0 0.0 103.0
67.0 199.0 2.0
128.0 192.0 126.0
169.0 220.0 192.0
80.0 238.0 247.0
188.0 0.0 0.0
102.0 67.0 247.0
70.0 128.0 192.0
172.0 237.0 220.0
192.0 8.0 11.0
17.0 189.0 0.0
0.0 102.0 67.0
164.0 147.0 131.0
192.0 21.0 44.0
223.0 192.0 64.0
6.0 199.0 188.0
0.0 0.0 74.0
67.0 184.0 238.0
131.0 192.0 222.0
105.0 223.0 192.0
192.0 21.0 193.0
188.0 0.0 0.0
73.0 67.0 161.0
75.0 132.0 192.0
2.0 167.0 223.0
192.0 80.0 36.0
183.0 188.0 0.0
0.0 72.0 67.0
77.0 174.0 132.0
192.0 100.0 232.0
223.0 192.0 192.0
56.0 174.0 188.0
0.0 0.0 74.0
67.0 13.0 233.0
132.0 192.0 174.0
246.0 223.0 192.0
128.0 41.0 95.0
188.0 0.0 0.0
84.0 67.0 150.0
112.0 133.0 192.0
142.0 94.0 224.0
192.0 64.0 131.0
133.0 188.0 0.0
0.0 88.0 67.0
178.0 40.0 134.0
192.0 201.0 248.0
224.0 192.0 160.0
121.0 194.0 188.0
0.0 0.0 89.0
67.0 63.0 185.0
134.0 192.0 153.0
95.0 225.0 192.0
208.0 124.0 200.0
188.0 0.0 0.0
112.0 67.0 73.0
77.0 135.0 192.0
105.0 197.0 225.0
192.0 80.0 40.0
199.0 188.0 0.0
0.0 111.0 67.0
121.0 233.0 135.0
192.0 42.0 47.0
226.0 192.0 224.0
125.0 194.0 188.0
0.0 0.0 107.0
67.0 252.0 131.0
136.0 192.0 93.0
146.0 226.0 192.0
224.0 0.0 178.0
188.0 0.0 0.0
104.0 67.0 135.0
84.0 137.0 192.0
168.0 39.0 227.0
192.0 80.0 129.0
191.0 188.0 0.0
0.0 96.0 67.0
25.0 42.0 138.0
192.0 55.0 187.0
227.0 192.0 208.0
191.0 193.0 188.0
0.0 0.0 90.0
67.0 59.0 47.0
139.0 192.0 37.0
118.0 228.0 192.0
112.0 212.0 211.0
188.0 0.0 0.0
82.0 67.0 91.0
23.0 140.0 192.0
92.0 79.0 229.0
192.0 144.0 50.0
208.0 188.0 0.0
0.0 73.0 67.0
112.0 45.0 141.0
192.0 46.0 11.0
230.0 192.0 32.0
163.0 199.0 188.0
0.0 0.0 76.0
67.0 19.0 124.0
142.0 192.0 105.0
242.0 230.0 192.0
64.0 132.0 201.0
188.0 0.0 0.0
68.0 67.0 147.0
5.0 144.0 192.0
66.0 4.0 232.0
192.0 0.0 158.0
208.0 188.0 0.0
0.0 57.0 67.0
202.0 6.0 146.0
192.0 64.0 115.0
233.0 192.0 176.0
64.0 240.0 188.0
0.0 0.0 32.0
67.0 135.0 161.0
147.0 192.0 169.0
122.0 234.0 192.0
240.0 28.0 199.0
188.0 0.0 0.0
72.0 67.0 101.0
245.0 147.0 192.0
98.0 99.0 234.0
192.0 0.0 57.0
42.0 187.0 0.0
0.0 124.0 67.0
129.0 69.0 148.0
192.0 189.0 72.0
234.0 192.0 144.0
210.0 157.0 60.0
0.0 0.0 119.0
67.0 177.0 89.0
148.0 192.0 96.0
253.0 233.0 192.0
120.0 157.0 48.0
61.0 0.0 0.0
114.0 67.0 96.0
161.0 148.0 192.0
107.0 220.0 233.0
192.0 216.0 46.0
133.0 61.0 0.0
0.0 116.0 67.0
38.0 229.0 148.0
192.0 57.0 184.0
233.0 192.0 116.0
72.0 178.0 61.0
0.0 0.0 113.0
67.0 219.0 234.0
148.0 192.0 132.0
100.0 233.0 192.0
36.0 8.0 226.0
61.0 0.0 0.0
110.0 67.0 192.0
96.0 149.0 192.0
70.0 102.0 233.0
192.0 212.0 132.0
6.0 62.0 0.0
0.0 109.0 67.0
122.0 152.0 149.0
192.0 154.0 56.0
233.0 192.0 247.0
80.0 29.0 62.0
0.0 0.0 104.0
67.0 22.0 204.0
149.0 192.0 219.0
7.0 233.0 192.0
132.0 42.0 52.0
62.0 0.0 0.0
97.0 67.0 137.0
251.0 149.0 192.0
22.0 212.0 232.0
192.0 154.0 13.0
75.0 62.0 0.0
0.0 86.0 67.0
12.0 12.0 210.0
191.0 236.0 77.0
183.0 192.0 25.0
173.0 193.0 62.0
0.0 0.0 48.0
67.0 200.0 133.0
208.0 191.0 90.0
241.0 183.0 192.0
44.0 230.0 161.0
62.0 0.0 0.0
53.0 67.0 172.0
20.0 205.0 191.0
254.0 96.0 184.0
192.0 67.0 45.0
130.0 62.0 0.0
0.0 60.0 67.0
140.0 198.0 202.0
191.0 140.0 241.0
184.0 192.0 232.0
26.0 68.0 62.0
0.0 0.0 68.0
67.0 96.0 167.0
198.0 191.0 12.0
85.0 185.0 192.0
184.0 173.0 2.0
62.0 0.0 0.0
73.0 67.0 128.0
240.0 197.0 191.0
9.0 18.0 186.0
192.0 190.0 122.0
131.0 61.0 0.0
0.0 77.0 67.0
140.0 44.0 195.0
191.0 1.0 157.0
186.0 192.0 0.0
42.0 83.0 186.0
0.0 0.0 80.0
67.0 146.0 207.0
193.0 191.0 11.0
76.0 187.0 192.0
216.0 14.0 134.0
189.0 0.0 0.0
34.0 67.0 20.0
64.0 222.0 191.0
196.0 169.0 190.0
192.0 44.0 220.0
196.0 189.0 0.0
0.0 74.0 67.0
28.0 239.0 7.0
192.0 40.0 186.0
195.0 192.0 228.0
207.0 176.0 189.0
0.0 0.0 123.0
67.0 140.0 14.0
31.0 192.0 58.0
63.0 200.0 192.0
192.0 65.0 124.0
189.0 0.0 0.0
196.0 66.0 239.0
93.0 44.0 192.0
149.0 234.0 202.0
192.0 64.0 22.0
88.0 189.0 0.0
0.0 236.0 66.0
232.0 105.0 54.0
192.0 230.0 237.0
204.0 192.0 144.0
127.0 60.0 189.0
0.0 0.0 0.0
67.0 16.0 204.0
62.0 192.0 50.0
149.0 206.0 192.0
120.0 80.0 29.0
189.0 0.0 0.0
0.0 67.0 236.0
116.0 68.0 192.0
226.0 190.0 207.0
192.0 88.0 190.0
23.0 189.0 0.0
0.0 10.0 67.0
200.0 13.0 73.0
192.0 203.0 178.0
208.0 192.0 32.0
59.0 22.0 189.0
0.0 0.0 16.0
67.0 108.0 15.0
77.0 192.0 219.0
133.0 209.0 192.0
80.0 78.0 19.0
189.0 0.0 0.0
39.0 67.0 76.0
29.0 81.0 192.0
22.0 80.0 210.0
192.0 128.0 19.0
2.0 189.0 0.0
0.0 62.0 67.0
26.0 138.0 83.0
192.0 191.0 218.0
210.0 192.0 184.0
234.0 14.0 189.0
0.0 0.0 83.0
67.0 202.0 121.0
86.0 192.0 35.0
111.0 211.0 192.0
136.0 130.0 5.0
189.0 0.0 0.0
87.0 67.0 215.0
231.0 89.0 192.0
135.0 10.0 212.0
192.0 64.0 235.0
198.0 188.0 0.0
0.0 103.0 67.0
147.0 56.0 90.0
192.0 220.0 68.0
212.0 192.0 112.0
66.0 26.0 189.0
0.0 0.0 117.0
67.0 37.0 15.0
92.0 192.0 197.0
167.0 212.0 192.0
224.0 17.0 29.0
189.0 0.0 0.0
120.0 67.0 26.0
112.0 94.0 192.0
181.0 19.0 213.0
192.0 8.0 131.0
6.0 189.0 0.0
0.0 122.0 67.0
180.0 77.0 96.0
192.0 31.0 109.0
213.0 192.0 176.0
229.0 246.0 188.0
0.0 0.0 124.0
67.0 196.0 157.0
97.0 192.0 97.0
181.0 213.0 192.0
16.0 117.0 0.0
189.0 0.0 0.0
124.0 67.0 159.0
115.0 99.0 192.0
55.0 5.0 214.0
192.0 128.0 152.0
214.0 188.0 0.0
0.0 126.0 67.0
216.0 205.0 99.0
192.0 223.0 51.0
214.0 192.0 128.0
224.0 17.0 189.0
0.0 0.0 125.0
67.0 20.0 25.0
101.0 192.0 185.0
114.0 214.0 192.0
96.0 114.0 12.0
189.0 0.0 0.0
107.0 67.0 7.0
110.0 102.0 192.0
221.0 174.0 214.0
192.0 72.0 240.0
0.0 189.0 0.0
0.0 107.0 67.0
70.0 205.0 102.0
192.0 24.0 218.0
214.0 192.0 240.0
106.0 34.0 189.0
0.0 0.0 107.0
67.0 19.0 17.0
104.0 192.0 0.0
16.0 215.0 192.0
248.0 176.0 19.0
189.0 0.0 0.0
107.0 67.0 208.0
115.0 104.0 192.0
109.0 57.0 215.0
192.0 168.0 90.0
50.0 189.0 0.0
0.0 106.0 67.0
12.0 190.0 105.0
192.0 65.0 106.0
215.0 192.0 224.0
97.0 27.0 189.0
0.0 0.0 108.0
67.0 31.0 35.0
106.0 192.0 166.0
145.0 215.0 192.0
80.0 52.0 55.0
189.0 0.0 0.0
107.0 67.0 198.0
242.0 106.0 192.0
170.0 186.0 215.0
192.0 184.0 249.0
55.0 189.0 0.0
0.0 107.0 67.0
200.0 192.0 107.0
192.0 193.0 225.0
215.0 192.0 240.0
200.0 54.0 189.0
0.0 0.0 107.0
67.0 28.0 239.0
108.0 192.0 218.0
6.0 216.0 192.0
56.0 46.0 24.0
189.0 0.0 0.0
107.0 67.0 178.0
86.0 109.0 192.0
20.0 42.0 216.0
192.0 120.0 169.0
46.0 189.0 0.0
0.0 108.0 67.0
93.0 40.0 110.0
192.0 21.0 75.0
216.0 192.0 104.0
161.0 36.0 189.0
0.0 0.0 108.0
67.0 157.0 236.0
110.0 192.0 52.0
106.0 216.0 192.0
72.0 233.0 27.0
189.0 0.0 0.0
109.0 67.0 92.0
86.0 111.0 192.0
225.0 138.0 216.0
192.0 120.0 15.0
47.0 189.0 0.0
0.0 109.0 67.0
131.0 194.0 111.0
192.0 71.0 171.0
216.0 192.0 56.0
120.0 65.0 189.0
0.0 0.0 107.0
67.0 76.0 212.0
112.0 192.0 219.0
192.0 216.0 192.0
32.0 245.0 21.0
189.0 0.0 0.0
109.0 67.0 104.0
240.0 112.0 192.0
9.0 229.0 216.0
192.0 136.0 252.0
68.0 189.0 0.0
0.0 108.0 67.0
74.0 96.0 113.0
192.0 157.0 3.0
217.0 192.0 32.0
173.0 84.0 189.0
0.0 0.0 108.0
67.0 57.0 210.0
113.0 192.0 211.0
33.0 217.0 192.0
176.0 153.0 99.0
189.0 0.0 0.0
108.0 67.0 31.0
70.0 114.0 192.0
165.0 63.0 217.0
192.0 192.0 191.0
113.0 189.0 0.0
0.0 106.0 67.0
16.0 254.0 114.0
192.0 176.0 83.0
217.0 192.0 16.0
128.0 94.0 189.0
0.0 0.0 107.0
67.0 76.0 177.0
115.0 192.0 184.0
101.0 217.0 192.0
32.0 198.0 73.0
189.0 0.0 0.0
107.0 67.0 4.0
36.0 116.0 192.0
175.0 128.0 217.0
192.0 168.0 230.0
84.0 189.0 0.0
0.0 106.0 67.0
169.0 121.0 116.0
192.0 3.0 161.0
217.0 192.0 240.0
162.0 94.0 189.0
0.0 0.0 106.0
67.0 15.0 42.0
117.0 192.0 84.0
173.0 217.0 192.0
24.0 153.0 66.0
189.0 0.0 0.0
107.0 67.0 79.0
157.0 117.0 192.0
45.0 198.0 217.0
192.0 24.0 27.0
75.0 189.0 0.0
0.0 107.0 67.0
203.0 63.0 118.0
192.0 156.0 208.0
217.0 192.0 40.0
134.0 48.0 189.0
0.0 0.0 106.0
67.0 0.0 178.0
118.0 192.0 190.0
231.0 217.0 192.0
112.0 76.0 55.0
189.0 0.0 0.0
106.0 67.0 72.0
37.0 119.0 192.0
93.0 254.0 217.0
192.0 72.0 83.0
61.0 189.0 0.0
0.0 106.0 67.0
236.0 188.0 119.0
192.0 116.0 4.0
218.0 192.0 224.0
183.0 31.0 189.0
0.0 0.0 105.0
67.0 132.0 46.0
120.0 192.0 87.0
25.0 218.0 192.0
152.0 25.0 36.0
189.0 0.0 0.0
104.0 67.0 235.0
160.0 120.0 192.0
174.0 45.0 218.0
192.0 56.0 191.0
39.0 189.0 0.0
0.0 105.0 67.0
12.0 20.0 121.0
192.0 119.0 65.0
218.0 192.0 16.0
168.0 42.0 189.0
0.0 0.0 105.0
67.0 210.0 135.0
121.0 192.0 174.0
84.0 218.0 192.0
136.0 211.0 44.0
189.0 0.0 0.0
105.0 67.0 42.0
252.0 121.0 192.0
79.0 103.0 218.0
192.0 72.0 65.0
46.0 189.0 0.0
0.0 105.0 67.0
130.0 99.0 122.0
192.0 9.0 141.0
218.0 192.0 96.0
78.0 82.0 189.0
0.0 0.0 105.0
67.0 55.0 230.0
122.0 192.0 194.0
138.0 218.0 192.0
248.0 226.0 46.0
189.0 0.0 0.0
106.0 67.0 139.0
104.0 123.0 192.0
178.0 111.0 218.0
192.0 32.0 249.0
198.0 188.0 0.0
0.0 107.0 67.0
225.0 211.0 123.0
192.0 112.0 150.0
218.0 192.0 16.0
66.0 9.0 189.0
0.0 0.0 106.0
67.0 127.0 71.0
124.0 192.0 64.0
187.0 218.0 192.0
232.0 67.0 42.0
189.0 0.0 0.0
105.0 67.0 97.0
184.0 124.0 192.0
223.0 179.0 218.0
192.0 24.0 31.0
4.0 189.0 0.0
0.0 105.0 67.0
134.0 51.0 125.0
192.0 85.0 216.0
218.0 192.0 200.0
123.0 35.0 189.0
0.0 0.0 105.0
67.0 244.0 163.0
140.0 192.0 27.0
200.0 221.0 192.0
32.0 187.0 186.0
188.0 0.0 0.0
95.0 67.0 97.0
224.0 141.0 192.0
18.0 19.0 222.0
192.0 80.0 82.0
220.0 188.0 0.0
0.0 87.0 67.0
63.0 220.0 142.0
192.0 244.0 63.0
222.0 192.0 240.0
31.0 205.0 188.0
0.0 0.0 73.0
67.0 197.0 33.0
144.0 192.0 171.0
130.0 222.0 192.0
80.0 211.0 210.0
188.0 0.0 0.0
58.0 67.0 62.0
172.0 145.0 192.0
53.0 215.0 222.0
192.0 96.0 180.0
228.0 188.0 0.0
0.0 55.0 67.0
9.0 60.0 147.0
192.0 22.0 38.0
223.0 192.0 0.0
241.0 227.0 188.0
0.0 0.0 42.0
67.0 205.0 158.0
149.0 192.0 38.0
178.0 223.0 192.0
56.0 82.0 13.0
189.0 0.0 0.0
24.0 67.0 11.0
10.0 152.0 192.0
56.0 53.0 224.0
192.0 208.0 206.0
25.0 189.0 0.0
0.0 14.0 67.0
212.0 184.0 154.0
192.0 70.0 193.0
224.0 192.0 104.0
93.0 32.0 189.0
0.0 0.0 4.0
67.0 8.0 50.0
157.0 192.0 228.0
48.0 225.0 192.0
24.0 244.0 13.0
189.0 0.0 0.0
2.0 67.0 56.0
79.0 158.0 192.0
80.0 50.0 225.0
192.0 192.0 86.0
130.0 188.0 0.0
0.0 88.0 67.0
124.0 68.0 158.0
192.0 64.0 222.0
224.0 192.0 64.0
212.0 70.0 60.0
0.0 0.0 92.0
67.0 172.0 206.0
158.0 192.0 240.0
178.0 224.0 192.0
168.0 105.0 20.0
61.0 0.0 0.0
85.0 67.0 198.0
112.0 158.0 192.0
223.0 74.0 224.0
192.0 214.0 26.0
134.0 61.0 0.0
0.0 78.0 67.0
255.0 54.0 159.0
192.0 61.0 45.0
224.0 192.0 224.0
20.0 182.0 61.0
0.0 0.0 66.0
67.0 84.0 106.0
41.0 191.0 101.0
42.0 210.0 192.0
109.0 128.0 55.0
63.0 0.0 0.0
52.0 67.0 164.0
164.0 33.0 191.0
98.0 253.0 210.0
192.0 88.0 37.0
35.0 63.0 0.0
0.0 59.0 67.0
112.0 182.0 28.0
191.0 141.0 214.0
211.0 192.0 248.0
67.0 14.0 63.0
0.0 0.0 60.0
67.0 0.0 91.0
24.0 191.0 136.0
177.0 212.0 192.0
154.0 108.0 242.0
62.0 0.0 0.0
65.0 67.0 88.0
184.0 15.0 191.0
97.0 138.0 213.0
192.0 195.0 117.0
200.0 62.0 0.0
0.0 7.0 67.0
144.0 43.0 243.0
190.0 3.0 96.0
214.0 192.0 212.0
89.0 158.0 62.0
0.0 0.0 182.0
66.0 196.0 13.0
5.0 191.0 223.0
72.0 215.0 192.0
114.0 130.0 100.0
62.0 0.0 0.0
63.0 67.0 196.0
12.0 3.0 191.0
141.0 43.0 216.0
192.0 201.0 28.0
13.0 62.0 0.0
0.0 75.0 67.0
80.0 201.0 235.0
190.0 45.0 18.0
217.0 192.0 176.0
83.0 75.0 61.0
0.0 0.0 62.0
67.0 128.0 142.0
224.0 190.0 196.0
251.0 217.0 192.0
96.0 8.0 32.0
189.0 0.0 0.0
63.0 67.0 48.0
223.0 200.0 190.0
156.0 237.0 218.0
192.0 124.0 239.0
6.0 190.0 0.0
0.0 37.0 67.0
240.0 131.0 173.0
190.0 60.0 232.0
219.0 192.0 66.0
187.0 105.0 190.0
0.0 0.0 27.0
67.0 221.0 161.0
1.0 192.0 249.0
160.0 218.0 192.0
184.0 126.0 119.0
189.0 0.0 0.0
130.0 66.0 249.0
162.0 23.0 192.0
46.0 150.0 218.0
192.0 216.0 29.0
67.0 189.0 0.0
0.0 192.0 66.0
172.0 29.0 39.0
192.0 165.0 141.0
218.0 192.0 176.0
82.0 29.0 189.0
0.0 0.0 240.0
66.0 242.0 128.0
50.0 192.0 96.0
135.0 218.0 192.0
32.0 5.0 2.0
189.0 0.0 0.0
248.0 66.0 158.0
103.0 58.0 192.0
139.0 138.0 218.0
192.0 224.0 205.0
246.0 188.0 0.0
0.0 4.0 67.0
136.0 20.0 65.0
192.0 75.0 138.0
218.0 192.0 208.0
66.0 227.0 188.0
0.0 0.0 17.0
67.0 147.0 154.0
70.0 192.0 162.0
137.0 218.0 192.0
144.0 131.0 210.0
188.0 0.0 0.0
25.0 67.0 230.0
253.0 74.0 192.0
6.0 140.0 218.0
192.0 96.0 103.0
207.0 188.0 0.0
0.0 46.0 67.0
180.0 71.0 79.0
192.0 180.0 134.0
218.0 192.0 96.0
150.0 180.0 188.0
0.0 0.0 69.0
67.0 6.0 237.0
81.0 192.0 49.0
145.0 218.0 192.0
240.0 85.0 209.0
188.0 0.0 0.0
88.0 67.0 104.0
141.0 84.0 192.0
169.0 150.0 218.0
192.0 0.0 168.0
222.0 188.0 0.0
0.0 93.0 67.0
221.0 147.0 86.0
192.0 68.0 161.0
218.0 192.0 160.0
157.0 254.0 188.0
0.0 0.0 109.0
67.0 152.0 40.0
89.0 192.0 124.0
157.0 218.0 192.0
224.0 93.0 239.0
188.0 0.0 0.0
120.0 67.0 97.0
51.0 91.0 192.0
255.0 158.0 218.0
192.0 208.0 250.0
242.0 188.0 0.0
0.0 122.0 67.0
26.0 42.0 93.0
192.0 246.0 157.0
218.0 192.0 0.0
254.0 238.0 188.0
0.0 0.0 123.0
67.0 0.0 166.0
95.0 192.0 34.0
141.0 218.0 192.0
144.0 206.0 182.0
188.0 0.0 0.0
126.0 67.0 218.0
149.0 96.0 192.0
144.0 155.0 218.0
192.0 96.0 95.0
232.0 188.0 0.0
0.0 125.0 67.0
166.0 147.0 97.0
192.0 25.0 167.0
218.0 192.0 96.0
122.0 8.0 189.0
0.0 0.0 125.0
67.0 242.0 250.0
98.0 192.0 249.0
165.0 218.0 192.0
8.0 213.0 7.0
189.0 0.0 0.0
126.0 67.0 98.0
93.0 100.0 192.0
117.0 162.0 218.0
192.0 112.0 118.0
3.0 189.0 0.0
0.0 107.0 67.0
26.0 199.0 101.0
192.0 37.0 155.0
218.0 192.0 192.0
229.0 241.0 188.0
0.0 0.0 107.0
67.0 216.0 29.0
103.0 192.0 252.0
146.0 218.0 192.0
48.0 119.0 218.0
188.0 0.0 0.0
107.0 67.0 96.0
147.0 103.0 192.0
154.0 164.0 218.0
192.0 184.0 111.0
13.0 189.0 0.0
0.0 108.0 67.0
16.0 119.0 104.0
192.0 51.0 167.0
218.0 192.0 144.0
129.0 20.0 189.0
0.0 0.0 107.0
67.0 67.0 100.0
105.0 192.0 199.0
166.0 218.0 192.0
112.0 181.0 22.0
189.0 0.0 0.0
108.0 67.0 118.0
168.0 106.0 192.0
140.0 151.0 218.0
192.0 240.0 175.0
255.0 188.0 0.0
0.0 109.0 67.0
56.0 189.0 106.0
192.0 122.0 180.0
218.0 192.0 72.0
201.0 52.0 189.0
0.0 0.0 107.0
67.0 251.0 248.0
107.0 192.0 80.0
162.0 218.0 192.0
168.0 72.0 25.0
189.0 0.0 0.0
108.0 67.0 40.0
207.0 108.0 192.0
70.0 158.0 218.0
192.0 160.0 50.0
22.0 189.0 0.0
0.0 107.0 67.0
104.0 72.0 109.0
192.0 68.0 169.0
218.0 192.0 56.0
93.0 45.0 189.0
0.0 0.0 107.0
67.0 2.0 36.0
110.0 192.0 66.0
161.0 218.0 192.0
48.0 222.0 35.0
189.0 0.0 0.0
108.0 67.0 137.0
158.0 110.0 192.0
168.0 170.0 218.0
192.0 120.0 236.0
56.0 189.0 0.0
0.0 108.0 67.0
50.0 107.0 111.0
192.0 106.0 162.0
218.0 192.0 16.0
111.0 47.0 189.0
0.0 0.0 108.0
67.0 196.0 230.0
111.0 192.0 71.0
170.0 218.0 192.0
200.0 118.0 66.0
189.0 0.0 0.0
108.0 67.0 164.0
173.0 112.0 192.0
27.0 160.0 218.0
192.0 48.0 244.0
53.0 189.0 0.0
0.0 109.0 67.0
177.0 41.0 113.0
192.0 121.0 166.0
218.0 192.0 160.0
252.0 70.0 189.0
0.0 0.0 108.0
67.0 5.0 234.0
113.0 192.0 122.0
154.0 218.0 192.0
0.0 146.0 55.0
189.0 0.0 0.0
108.0 67.0 3.0
102.0 114.0 192.0
100.0 159.0 218.0
192.0 120.0 164.0
70.0 189.0 0.0
0.0 107.0 67.0
137.0 227.0 114.0
192.0 169.0 163.0
218.0 192.0 56.0
243.0 84.0 189.0
0.0 0.0 107.0
67.0 126.0 154.0
115.0 192.0 54.0
149.0 218.0 192.0
64.0 153.0 65.0
189.0 0.0 0.0
106.0 67.0 55.0
23.0 116.0 192.0
23.0 152.0 218.0
192.0 16.0 254.0
77.0 189.0 0.0
0.0 106.0 67.0
93.0 203.0 116.0
192.0 24.0 134.0
218.0 192.0 48.0
79.0 52.0 189.0
0.0 0.0 106.0
67.0 100.0 70.0
117.0 192.0 164.0
135.0 218.0 192.0
32.0 207.0 62.0
189.0 0.0 0.0
106.0 67.0 113.0
194.0 117.0 192.0
144.0 136.0 218.0
192.0 120.0 140.0
72.0 189.0 0.0
0.0 106.0 67.0
107.0 63.0 118.0
192.0 219.0 136.0
218.0 192.0 152.0
133.0 81.0 189.0
0.0 0.0 106.0
67.0 53.0 223.0
118.0 192.0 63.0
118.0 218.0 192.0
120.0 8.0 55.0
189.0 0.0 0.0
104.0 67.0 57.0
120.0 119.0 192.0
16.0 99.0 218.0
192.0 48.0 83.0
27.0 189.0 0.0
0.0 104.0 67.0
231.0 239.0 119.0
192.0 147.0 97.0
218.0 192.0 136.0
145.0 33.0 189.0
0.0 0.0 105.0
67.0 33.0 104.0
120.0 192.0 128.0
95.0 218.0 192.0
8.0 18.0 39.0
189.0 0.0 0.0
104.0 67.0 156.0
243.0 120.0 192.0
200.0 74.0 218.0
192.0 80.0 101.0
8.0 189.0 0.0
0.0 106.0 67.0
225.0 89.0 121.0
192.0 151.0 89.0
218.0 192.0 240.0
213.0 47.0 189.0
0.0 0.0 105.0
67.0 94.0 222.0
121.0 192.0 238.0
67.0 218.0 192.0
104.0 110.0 15.0
189.0 0.0 0.0
106.0 67.0 23.0
84.0 122.0 192.0
169.0 63.0 218.0
192.0 240.0 218.0
17.0 189.0 0.0
0.0 106.0 67.0
239.0 201.0 122.0
192.0 214.0 58.0
218.0 192.0 40.0
140.0 19.0 189.0
0.0 0.0 106.0
67.0 209.0 63.0
123.0 192.0 117.0
53.0 218.0 192.0
200.0 129.0 20.0
189.0 0.0 0.0
106.0 67.0 120.0
60.0 150.0 63.0
105.0 162.0 8.0
193.0 236.0 203.0
183.0 63.0 0.0
0.0 65.0 67.0
180.0 158.0 145.0
63.0 166.0 4.0
9.0 193.0 88.0
187.0 164.0 63.0
0.0 0.0 70.0
67.0 116.0 228.0
142.0 63.0 233.0
121.0 9.0 193.0
106.0 92.0 146.0
63.0 0.0 0.0
80.0 67.0 36.0
132.0 138.0 63.0
145.0 217.0 9.0
193.0 216.0 234.0
127.0 63.0 0.0
0.0 82.0 67.0
20.0 211.0 135.0
63.0 22.0 75.0
10.0 193.0 228.0
27.0 92.0 63.0
0.0 0.0 91.0
67.0 204.0 176.0
132.0 63.0 126.0
181.0 10.0 193.0
226.0 140.0 56.0
63.0 0.0 0.0
89.0 67.0 104.0
79.0 130.0 63.0
176.0 39.0 11.0
193.0 132.0 111.0
21.0 63.0 0.0
0.0 93.0 67.0
8.0 160.0 124.0
63.0 248.0 131.0
11.0 193.0 189.0
197.0 228.0 62.0
0.0 0.0 93.0
67.0 232.0 40.0
118.0 63.0 109.0
232.0 11.0 193.0
156.0 101.0 159.0
62.0 0.0 0.0
93.0 67.0 152.0
252.0 112.0 63.0
40.0 84.0 12.0
193.0 231.0 207.0
52.0 62.0 0.0
0.0 89.0 67.0
144.0 189.0 106.0
63.0 199.0 183.0
12.0 193.0 56.0
107.0 45.0 61.0
0.0 0.0 82.0
67.0 152.0 143.0
93.0 63.0 224.0
234.0 12.0 193.0
116.0 167.0 183.0
189.0 0.0 0.0
7.0 67.0 200.0
88.0 94.0 63.0
243.0 124.0 13.0
193.0 78.0 141.0
102.0 190.0 0.0
0.0 33.0 67.0
80.0 13.0 90.0
63.0 238.0 235.0
13.0 193.0 87.0
40.0 184.0 190.0
0.0 0.0 65.0
67.0 72.0 190.0
80.0 63.0 178.0
54.0 14.0 193.0
201.0 206.0 251.0
190.0 0.0 0.0
228.0 66.0 54.0
108.0 27.0 192.0
136.0 7.0 238.0
192.0 8.0 123.0
34.0 189.0 0.0
0.0 184.0 66.0
46.0 212.0 42.0
192.0 190.0 204.0
234.0 192.0 112.0
27.0 7.0 189.0
0.0 0.0 238.0
66.0 209.0 224.0
53.0 192.0 245.0
124.0 232.0 192.0
0.0 83.0 237.0
188.0 0.0 0.0
2.0 67.0 122.0
185.0 62.0 192.0
19.0 160.0 230.0
192.0 192.0 251.0
199.0 188.0 0.0
0.0 2.0 67.0
36.0 118.0 69.0
192.0 103.0 54.0
229.0 192.0 0.0
16.0 179.0 188.0
0.0 0.0 14.0
67.0 50.0 6.0
74.0 192.0 14.0
74.0 228.0 192.0
16.0 126.0 201.0
188.0 0.0 0.0
22.0 67.0 116.0
150.0 78.0 192.0
72.0 85.0 227.0
192.0 32.0 174.0
190.0 188.0 0.0
0.0 46.0 67.0
224.0 154.0 82.0
192.0 188.0 123.0
226.0 192.0 144.0
212.0 173.0 188.0
0.0 0.0 67.0
67.0 191.0 6.0
85.0 192.0 180.0
4.0 226.0 192.0
96.0 146.0 215.0
188.0 0.0 0.0
89.0 67.0 150.0
121.0 87.0 192.0
129.0 135.0 225.0
192.0 208.0 177.0
238.0 188.0 0.0
0.0 93.0 67.0
66.0 91.0 90.0
192.0 39.0 232.0
224.0 192.0 32.0
9.0 216.0 188.0
0.0 0.0 115.0
67.0 125.0 187.0
92.0 192.0 134.0
102.0 224.0 192.0
176.0 35.0 206.0
188.0 0.0 0.0
122.0 67.0 166.0
158.0 94.0 192.0
251.0 2.0 224.0
192.0 0.0 79.0
214.0 188.0 0.0
0.0 122.0 67.0
168.0 235.0 96.0
192.0 46.0 126.0
223.0 192.0 144.0
129.0 175.0 188.0
0.0 0.0 125.0
67.0 82.0 66.0
98.0 192.0 49.0
59.0 223.0 192.0
112.0 79.0 199.0
188.0 0.0 0.0
125.0 67.0 218.0
148.0 99.0 192.0
6.0 247.0 222.0
192.0 80.0 47.0
215.0 188.0 0.0
0.0 126.0 67.0
150.0 238.0 100.0
192.0 84.0 174.0
222.0 192.0 208.0
198.0 218.0 188.0
0.0 0.0 126.0
67.0 161.0 206.0
101.0 192.0 164.0
135.0 222.0 192.0
104.0 55.0 2.0
189.0 0.0 0.0
127.0 67.0 192.0
19.0 103.0 192.0
181.0 64.0 222.0
192.0 48.0 117.0
254.0 188.0 0.0
0.0 107.0 67.0
146.0 193.0 104.0
192.0 186.0 214.0
221.0 192.0 48.0
101.0 191.0 188.0
0.0 0.0 108.0
67.0 200.0 52.0
105.0 192.0 158.0
204.0 221.0 192.0
0.0 122.0 2.0
189.0 0.0 0.0
108.0 67.0 111.0
104.0 106.0 192.0
47.0 132.0 221.0
192.0 240.0 5.0
234.0 188.0 0.0
0.0 108.0 67.0
83.0 220.0 106.0
192.0 50.0 120.0
221.0 192.0 112.0
230.0 20.0 189.0
0.0 0.0 108.0
67.0 89.0 182.0
107.0 192.0 187.0
73.0 221.0 192.0
8.0 24.0 24.0
189.0 0.0 0.0
107.0 67.0 82.0
131.0 108.0 192.0
32.0 30.0 221.0
192.0 216.0 229.0
27.0 189.0 0.0
0.0 107.0 67.0
56.0 77.0 109.0
192.0 24.0 242.0
220.0 192.0 232.0
159.0 29.0 189.0
0.0 0.0 108.0
67.0 135.0 194.0
109.0 192.0 179.0
226.0 220.0 192.0
152.0 113.0 56.0
189.0 0.0 0.0
107.0 67.0 104.0
136.0 110.0 192.0
175.0 181.0 220.0
192.0 0.0 190.0
54.0 189.0 0.0
0.0 108.0 67.0
139.0 74.0 111.0
192.0 120.0 136.0
220.0 192.0 96.0
13.0 51.0 189.0
0.0 0.0 108.0
67.0 38.0 192.0
111.0 192.0 219.0
118.0 220.0 192.0
64.0 92.0 74.0
189.0 0.0 0.0
108.0 67.0 216.0
132.0 112.0 192.0
0.0 70.0 220.0
192.0 104.0 26.0
64.0 189.0 0.0
0.0 108.0 67.0
29.0 61.0 113.0
192.0 65.0 24.0
220.0 192.0 168.0
46.0 55.0 189.0
0.0 0.0 108.0
67.0 235.0 113.0
113.0 192.0 28.0
31.0 220.0 192.0
40.0 151.0 105.0
189.0 0.0 0.0
107.0 67.0 191.0
234.0 113.0 192.0
77.0 10.0 220.0
192.0 32.0 37.0
125.0 189.0 0.0
0.0 106.0 67.0
123.0 16.0 115.0
192.0 41.0 169.0
219.0 192.0 48.0
46.0 49.0 189.0
0.0 0.0 108.0
67.0 121.0 130.0
115.0 192.0 84.0
148.0 219.0 192.0
168.0 182.0 65.0
189.0 0.0 0.0
107.0 67.0 156.0
245.0 115.0 192.0
180.0 126.0 219.0
192.0 184.0 121.0
81.0 189.0 0.0
0.0 106.0 67.0
22.0 206.0 116.0
192.0 10.0 55.0
219.0 192.0 112.0
4.0 27.0 189.0
0.0 0.0 107.0
67.0 88.0 60.0
117.0 192.0 58.0
33.0 219.0 192.0
8.0 94.0 40.0
189.0 0.0 0.0
106.0 67.0 113.0
171.0 117.0 192.0
182.0 10.0 219.0
192.0 96.0 246.0
52.0 189.0 0.0
0.0 106.0 67.0
229.0 64.0 118.0
192.0 45.0 222.0
218.0 192.0 144.0
199.0 30.0 189.0
0.0 0.0 106.0
67.0 25.0 174.0
118.0 192.0 255.0
198.0 218.0 192.0
208.0 130.0 41.0
189.0 0.0 0.0
106.0 67.0 197.0
58.0 119.0 192.0
75.0 155.0 218.0
192.0 88.0 214.0
16.0 189.0 0.0
0.0 105.0 67.0
52.0 138.0 119.0
192.0 186.0 150.0
218.0 192.0 232.0
178.0 60.0 189.0
0.0 0.0 103.0
67.0 11.0 17.0
120.0 192.0 78.0
107.0 218.0 192.0
176.0 243.0 33.0
189.0 0.0 0.0
104.0 67.0 111.0
145.0 120.0 192.0
221.0 64.0 218.0
192.0 160.0 245.0
5.0 189.0 0.0
0.0 106.0 67.0
182.0 232.0 120.0
192.0 4.0 57.0
218.0 192.0 184.0
15.0 48.0 189.0
0.0 0.0 105.0
67.0 226.0 84.0
121.0 192.0 15.0
31.0 218.0 192.0
8.0 250.0 53.0
189.0 0.0 0.0
105.0 67.0 155.0
203.0 121.0 192.0
118.0 245.0 217.0
192.0 192.0 35.0
23.0 189.0 0.0
0.0 106.0 67.0
132.0 52.0 122.0
192.0 85.0 219.0
217.0 192.0 184.0
97.0 27.0 189.0
0.0 0.0 106.0
67.0 103.0 157.0
122.0 192.0 188.0
192.0 217.0 192.0
64.0 224.0 30.0
189.0 0.0 0.0
106.0 67.0 224.0
79.0 79.0 190.0
11.0 242.0 32.0
193.0 74.0 251.0
195.0 63.0 0.0
0.0 71.0 67.0
192.0 37.0 102.0
190.0 59.0 10.0
33.0 193.0 250.0
10.0 178.0 63.0
0.0 0.0 78.0
67.0 80.0 92.0
114.0 190.0 218.0
70.0 33.0 193.0
233.0 195.0 160.0
63.0 0.0 0.0
81.0 67.0 80.0
158.0 128.0 190.0
138.0 120.0 33.0
193.0 82.0 148.0
143.0 63.0 0.0
0.0 83.0 67.0
232.0 161.0 133.0
190.0 180.0 186.0
33.0 193.0 210.0
97.0 125.0 63.0
0.0 0.0 88.0
67.0 16.0 146.0
136.0 190.0 65.0
11.0 34.0 193.0
204.0 254.0 91.0
63.0 0.0 0.0
90.0 67.0 32.0
221.0 147.0 190.0
255.0 28.0 34.0
193.0 240.0 33.0
58.0 63.0 0.0
0.0 91.0 67.0
248.0 171.0 156.0
190.0 229.0 63.0
34.0 193.0 70.0
189.0 24.0 63.0
0.0 0.0 91.0
67.0 32.0 92.0
163.0 190.0 170.0
113.0 34.0 193.0
91.0 65.0 239.0
62.0 0.0 0.0
91.0 67.0 160.0
164.0 171.0 190.0
125.0 150.0 34.0
193.0 72.0 44.0
173.0 62.0 0.0
0.0 93.0 67.0
136.0 111.0 177.0
190.0 117.0 205.0
34.0 193.0 99.0
148.0 86.0 62.0
0.0 0.0 93.0
67.0 32.0 196.0
180.0 190.0 212.0
22.0 35.0 193.0
244.0 0.0 165.0
61.0 0.0 0.0
91.0 67.0 224.0
250.0 195.0 190.0
175.0 3.0 35.0
193.0 208.0 78.0
65.0 189.0 0.0
0.0 96.0 67.0
144.0 228.0 191.0
190.0 254.0 133.0
35.0 193.0 58.0
181.0 54.0 190.0
0.0 0.0 79.0
67.0 32.0 80.0
199.0 190.0 102.0
174.0 35.0 193.0
225.0 212.0 157.0
190.0 0.0 0.0
30.0 67.0 245.0
196.0 32.0 192.0
90.0 104.0 2.0
193.0 224.0 234.0
17.0 189.0 0.0
0.0 138.0 66.0
82.0 72.0 50.0
192.0 188.0 98.0
252.0 192.0 240.0
35.0 218.0 188.0
0.0 0.0 212.0
66.0 86.0 16.0
61.0 192.0 12.0
56.0 247.0 192.0
240.0 46.0 208.0
188.0 0.0 0.0
238.0 66.0 2.0
177.0 69.0 192.0
124.0 17.0 243.0
192.0 80.0 17.0
180.0 188.0 0.0
0.0 2.0 67.0
251.0 62.0 76.0
192.0 46.0 234.0
239.0 192.0 176.0
31.0 161.0 188.0
0.0 0.0 1.0
67.0 7.0 118.0
81.0 192.0 75.0
103.0 237.0 192.0
64.0 108.0 145.0
188.0 0.0 0.0
15.0 67.0 100.0
115.0 85.0 192.0
72.0 125.0 235.0
192.0 32.0 139.0
146.0 188.0 0.0
0.0 23.0 67.0
47.0 1.0 89.0
192.0 81.0 198.0
233.0 192.0 48.0
89.0 135.0 188.0
0.0 0.0 50.0
67.0 198.0 86.0
91.0 192.0 150.0
172.0 232.0 192.0
80.0 252.0 169.0
188.0 0.0 0.0
72.0 67.0 106.0
3.0 94.0 192.0
240.0 96.0 231.0
192.0 176.0 26.0
158.0 188.0 0.0
0.0 95.0 67.0
133.0 71.0 96.0
192.0 22.0 72.0
230.0 192.0 112.0
85.0 151.0 188.0
0.0 0.0 101.0
67.0 22.0 100.0
97.0 192.0 67.0
201.0 229.0 192.0
16.0 231.0 218.0
188.0 0.0 0.0
119.0 67.0 254.0
61.0 99.0 192.0
174.0 226.0 228.0
192.0 160.0 166.0
210.0 188.0 0.0
0.0 122.0 67.0
132.0 15.0 101.0
192.0 93.0 253.0
227.0 192.0 80.0
184.0 186.0 188.0
0.0 0.0 123.0
67.0 107.0 31.0
102.0 192.0 141.0
126.0 227.0 192.0
176.0 229.0 221.0
188.0 0.0 0.0
123.0 67.0 136.0
139.0 103.0 192.0
55.0 203.0 226.0
192.0 0.0 196.0
207.0 188.0 0.0
0.0 125.0 67.0
2.0 147.0 104.0
192.0 28.0 77.0
226.0 192.0 128.0
206.0 224.0 188.0
0.0 0.0 126.0
67.0 182.0 159.0
105.0 192.0 79.0
202.0 225.0 192.0
176.0 96.0 229.0
188.0 0.0 0.0
127.0 67.0 194.0
158.0 106.0 192.0
88.0 77.0 225.0
192.0 112.0 90.0
230.0 188.0 0.0
0.0 127.0 67.0
83.0 74.0 107.0
192.0 241.0 253.0
224.0 192.0 168.0
126.0 5.0 189.0
0.0 0.0 107.0
67.0 16.0 74.0
108.0 192.0 94.0
125.0 224.0 192.0
240.0 16.0 249.0
188.0 0.0 0.0
107.0 67.0 179.0
59.0 109.0 192.0
15.0 3.0 224.0
192.0 80.0 105.0
228.0 188.0 0.0
0.0 108.0 67.0
148.0 222.0 109.0
192.0 184.0 180.0
223.0 192.0 32.0
76.0 248.0 188.0
0.0 0.0 108.0
67.0 94.0 56.0
110.0 192.0 30.0
144.0 223.0 192.0
160.0 153.0 28.0
189.0 0.0 0.0
108.0 67.0 184.0
224.0 110.0 192.0
192.0 60.0 223.0
192.0 0.0 17.0
32.0 189.0 0.0
0.0 108.0 67.0
219.0 59.0 111.0
192.0 61.0 22.0
223.0 192.0 40.0
56.0 62.0 189.0
0.0 0.0 107.0
67.0 44.0 91.0
112.0 192.0 101.0
121.0 222.0 192.0
176.0 77.0 11.0
189.0 0.0 0.0
109.0 67.0 35.0
179.0 112.0 192.0
252.0 82.0 222.0
192.0 64.0 236.0
37.0 189.0 0.0
0.0 109.0 67.0
138.0 12.0 113.0
192.0 88.0 43.0
222.0 192.0 112.0
199.0 63.0 189.0
0.0 0.0 108.0
67.0 147.0 161.0
113.0 192.0 109.0
222.0 221.0 192.0
96.0 49.0 60.0
189.0 0.0 0.0
108.0 67.0 160.0
57.0 114.0 192.0
127.0 142.0 221.0
192.0 168.0 94.0
51.0 189.0 0.0
0.0 109.0 67.0
27.0 146.0 114.0
192.0 143.0 101.0
221.0 192.0 96.0
158.0 73.0 189.0
0.0 0.0 108.0
67.0 27.0 31.0
115.0 192.0 168.0
26.0 221.0 192.0
88.0 178.0 64.0
189.0 0.0 0.0
109.0 67.0 119.0
168.0 115.0 192.0
240.0 208.0 220.0
192.0 200.0 231.0
53.0 189.0 0.0
0.0 108.0 67.0
11.0 46.0 116.0
192.0 132.0 136.0
220.0 192.0 56.0
75.0 41.0 189.0
0.0 0.0 109.0
67.0 16.0 87.0
116.0 192.0 121.0
124.0 220.0 192.0
136.0 191.0 90.0
189.0 0.0 0.0
106.0 67.0 105.0
3.0 117.0 192.0
69.0 24.0 220.0
192.0 184.0 51.0
43.0 189.0 0.0
0.0 107.0 67.0
207.0 87.0 117.0
192.0 58.0 238.0
219.0 192.0 232.0
184.0 58.0 189.0
0.0 0.0 106.0
67.0 215.0 172.0
117.0 192.0 101.0
195.0 219.0 192.0
184.0 118.0 73.0
189.0 0.0 0.0
106.0 67.0 218.0
40.0 118.0 192.0
117.0 124.0 219.0
192.0 88.0 4.0
50.0 189.0 0.0
0.0 106.0 67.0
54.0 124.0 118.0
192.0 139.0 81.0
219.0 192.0 208.0
191.0 62.0 189.0
0.0 0.0 106.0
67.0 2.0 208.0
118.0 192.0 243.0
37.0 219.0 192.0
16.0 179.0 74.0
189.0 0.0 0.0
105.0 67.0 93.0
90.0 119.0 192.0
70.0 208.0 218.0
192.0 8.0 105.0
16.0 189.0 0.0
0.0 106.0 67.0
212.0 169.0 119.0
192.0 19.0 166.0
218.0 192.0 176.0
39.0 26.0 189.0
0.0 0.0 105.0
67.0 136.0 249.0
119.0 192.0 83.0
123.0 218.0 192.0
88.0 36.0 35.0
189.0 0.0 0.0
104.0 67.0 109.0
73.0 120.0 192.0
13.0 80.0 218.0
192.0 120.0 93.0
43.0 189.0 0.0
0.0 105.0 67.0
115.0 153.0 120.0
192.0 72.0 36.0
218.0 192.0 144.0
209.0 50.0 189.0
0.0 0.0 105.0
67.0 4.0 248.0
120.0 192.0 43.0
234.0 217.0 192.0
56.0 121.0 21.0
189.0 0.0 0.0
106.0 67.0 154.0
69.0 121.0 192.0
234.0 190.0 217.0
192.0 152.0 47.0
27.0 189.0 0.0
0.0 106.0 67.0
40.0 147.0 121.0
192.0 70.0 147.0
217.0 192.0 168.0
35.0 32.0 189.0
0.0 0.0 106.0
67.0 65.0 232.0
121.0 192.0 154.0
92.0 217.0 192.0
48.0 135.0 247.0
188.0 0.0 0.0
106.0 67.0 51.0
183.0 64.0 192.0
104.0 123.0 12.0
193.0 195.0 57.0
78.0 63.0 0.0
0.0 26.0 67.0
127.0 237.0 64.0
192.0 92.0 110.0
12.0 193.0 161.0
56.0 62.0 63.0
0.0 0.0 32.0
67.0 90.0 40.0
65.0 192.0 96.0
94.0 12.0 193.0
62.0 109.0 46.0
63.0 0.0 0.0
33.0 67.0 118.0
116.0 65.0 192.0
61.0 68.0 12.0
193.0 250.0 190.0
30.0 63.0 0.0
0.0 37.0 67.0
132.0 196.0 65.0
192.0 106.0 39.0
12.0 193.0 88.0
73.0 15.0 63.0
0.0 0.0 38.0
67.0 190.0 30.0
66.0 192.0 85.0
4.0 12.0 193.0
67.0 2.0 0.0
63.0 0.0 0.0
39.0 67.0 165.0
12.0 66.0 192.0
72.0 30.0 12.0
193.0 11.0 186.0
226.0 62.0 0.0
0.0 37.0 67.0
212.0 128.0 66.0
192.0 114.0 235.0
11.0 193.0 177.0
176.0 196.0 62.0
0.0 0.0 38.0
67.0 141.0 129.0
66.0 192.0 218.0
249.0 11.0 193.0
248.0 134.0 167.0
62.0 0.0 0.0
38.0 67.0 149.0
198.0 66.0 192.0
204.0 224.0 11.0
193.0 76.0 65.0
138.0 62.0 0.0
0.0 37.0 67.0
154.0 217.0 66.0
192.0 204.0 227.0
11.0 193.0 220.0
85.0 90.0 62.0
0.0 0.0 36.0
67.0 162.0 245.0
66.0 192.0 29.0
225.0 11.0 193.0
16.0 45.0 32.0
62.0 0.0 0.0
36.0 67.0 157.0
26.0 67.0 192.0
187.0 216.0 11.0
193.0 200.0 36.0
204.0 61.0 0.0
0.0 36.0 67.0
226.0 13.0 67.0
192.0 86.0 236.0
11.0 193.0 208.0
254.0 44.0 61.0
0.0 0.0 37.0
67.0 88.0 10.0
67.0 192.0 21.0
250.0 11.0 193.0
160.0 184.0 126.0
188.0 0.0 0.0
5.0 67.0 233.0
195.0 73.0 192.0
39.0 36.0 8.0
193.0 8.0 114.0
20.0 189.0 0.0
0.0 46.0 67.0
26.0 144.0 82.0
192.0 144.0 24.0
3.0 193.0 96.0
212.0 240.0 188.0
0.0 0.0 60.0
67.0 101.0 19.0
88.0 192.0 250.0
222.0 255.0 192.0
240.0 216.0 241.0
188.0 0.0 0.0
71.0 67.0 230.0
217.0 92.0 192.0
186.0 98.0 250.0
192.0 64.0 222.0
201.0 188.0 0.0
0.0 73.0 67.0
146.0 115.0 96.0
192.0 78.0 63.0
246.0 192.0 32.0
243.0 174.0 188.0
0.0 0.0 81.0
67.0 18.0 204.0
99.0 192.0 166.0
100.0 242.0 192.0
224.0 166.0 89.0
188.0 0.0 0.0
22.0 67.0 71.0
198.0 101.0 192.0
58.0 30.0 240.0
192.0 128.0 198.0
112.0 188.0 0.0
0.0 32.0 67.0
233.0 70.0 103.0
192.0 117.0 99.0
238.0 192.0 208.0
201.0 149.0 188.0
0.0 0.0 54.0
67.0 3.0 196.0
104.0 192.0 138.0
171.0 236.0 192.0
32.0 85.0 155.0
188.0 0.0 0.0
78.0 67.0 245.0
60.0 106.0 192.0
87.0 247.0 234.0
192.0 112.0 57.0
137.0 188.0 0.0
0.0 93.0 67.0
115.0 16.0 107.0
192.0 150.0 2.0
234.0 192.0 64.0
146.0 182.0 188.0
0.0 0.0 109.0
67.0 64.0 23.0
108.0 192.0 95.0
209.0 232.0 192.0
128.0 168.0 184.0
188.0 0.0 0.0
122.0 67.0 180.0
224.0 108.0 192.0
205.0 230.0 231.0
192.0 128.0 232.0
206.0 188.0 0.0
0.0 124.0 67.0
90.0 225.0 109.0
192.0 108.0 187.0
230.0 192.0 192.0
65.0 179.0 188.0
0.0 0.0 126.0
67.0 23.0 171.0
110.0 192.0 94.0
207.0 229.0 192.0
32.0 246.0 171.0
188.0 0.0 0.0
127.0 67.0 44.0
58.0 111.0 192.0
254.0 38.0 229.0
192.0 32.0 118.0
194.0 188.0 0.0
0.0 127.0 67.0
160.0 254.0 111.0
192.0 57.0 64.0
228.0 192.0 80.0
62.0 165.0 188.0
0.0 0.0 127.0
67.0 97.0 40.0
112.0 192.0 131.0
12.0 228.0 192.0
0.0 131.0 251.0
188.0 0.0 0.0
126.0 67.0 216.0
226.0 112.0 192.0
164.0 48.0 227.0
192.0 0.0 232.0
208.0 188.0 0.0
0.0 108.0 67.0
210.0 111.0 113.0
192.0 58.0 137.0
226.0 192.0 16.0
120.0 194.0 188.0
0.0 0.0 108.0
67.0 28.0 199.0
113.0 192.0 145.0
31.0 226.0 192.0
240.0 163.0 222.0
188.0 0.0 0.0
108.0 67.0 182.0
29.0 114.0 192.0
83.0 182.0 225.0
192.0 176.0 73.0
246.0 188.0 0.0
0.0 107.0 67.0
134.0 115.0 114.0
192.0 166.0 77.0
225.0 192.0 160.0
186.0 4.0 189.0
0.0 0.0 108.0
67.0 170.0 248.0
114.0 192.0 128.0
174.0 224.0 192.0
224.0 172.0 224.0
188.0 0.0 0.0
109.0 67.0 166.0
246.0 114.0 192.0
164.0 169.0 224.0
192.0 48.0 33.0
40.0 189.0 0.0
0.0 107.0 67.0
218.0 115.0 115.0
192.0 66.0 19.0
224.0 192.0 240.0
102.0 17.0 189.0
0.0 0.0 108.0
67.0 235.0 156.0
115.0 192.0 75.0
220.0 223.0 192.0
112.0 74.0 45.0
189.0 0.0 0.0
107.0 67.0 59.0
238.0 115.0 192.0
111.0 119.0 223.0
192.0 24.0 181.0
44.0 189.0 0.0
0.0 109.0 67.0
59.0 241.0 115.0
192.0 45.0 106.0
223.0 192.0 128.0
178.0 98.0 189.0
0.0 0.0 107.0
67.0 82.0 103.0
116.0 192.0 184.0
219.0 222.0 192.0
176.0 83.0 66.0
189.0 0.0 0.0
108.0 67.0 7.0
145.0 116.0 192.0
63.0 162.0 222.0
192.0 88.0 202.0
89.0 189.0 0.0
0.0 108.0 67.0
149.0 226.0 116.0
192.0 127.0 60.0
222.0 192.0 192.0
3.0 79.0 189.0
0.0 0.0 108.0
67.0 121.0 46.0
117.0 192.0 20.0
221.0 221.0 192.0
112.0 152.0 69.0
189.0 0.0 0.0
108.0 67.0 172.0
120.0 117.0 192.0
164.0 127.0 221.0
192.0 24.0 77.0
58.0 189.0 0.0
0.0 108.0 67.0
30.0 193.0 117.0
192.0 79.0 36.0
221.0 192.0 184.0
46.0 45.0 189.0
0.0 0.0 108.0
67.0 195.0 232.0
117.0 192.0 207.0
235.0 220.0 192.0
80.0 111.0 62.0
189.0 0.0 0.0
107.0 67.0 195.0
16.0 118.0 192.0
110.0 178.0 220.0
192.0 208.0 227.0
78.0 189.0 0.0
0.0 106.0 67.0
190.0 117.0 118.0
192.0 50.0 58.0
220.0 192.0 80.0
201.0 24.0 189.0
0.0 0.0 107.0
67.0 78.0 125.0
118.0 192.0 120.0
33.0 220.0 192.0
88.0 233.0 75.0
189.0 0.0 0.0
106.0 67.0 13.0
165.0 118.0 192.0
94.0 231.0 219.0
192.0 240.0 132.0
89.0 189.0 0.0
0.0 106.0 67.0
34.0 233.0 118.0
192.0 130.0 145.0
219.0 192.0 168.0
75.0 64.0 189.0
0.0 0.0 106.0
67.0 42.0 40.0
119.0 192.0 79.0
65.0 219.0 192.0
80.0 82.0 41.0
189.0 0.0 0.0
106.0 67.0 14.0
78.0 119.0 192.0
229.0 8.0 219.0
192.0 216.0 199.0
51.0 189.0 0.0
0.0 104.0 67.0
21.0 116.0 119.0
192.0 241.0 207.0
218.0 192.0 48.0
115.0 61.0 189.0
0.0 0.0 103.0
67.0 220.0 174.0
119.0 192.0 20.0
133.0 218.0 192.0
8.0 224.0 34.0
189.0 0.0 0.0
104.0 67.0 230.0
211.0 119.0 192.0
242.0 76.0 218.0
192.0 200.0 178.0
42.0 189.0 0.0
0.0 104.0 67.0
253.0 248.0 119.0
192.0 103.0 20.0
218.0 192.0 8.0
189.0 49.0 189.0
0.0 0.0 105.0
67.0 27.0 30.0
120.0 192.0 128.0
219.0 217.0 192.0
160.0 253.0 55.0
189.0 0.0 0.0
105.0 67.0 45.0
83.0 120.0 192.0
8.0 152.0 217.0
192.0 112.0 41.0
25.0 189.0 0.0
0.0 106.0 67.0
81.0 104.0 120.0
192.0 192.0 104.0
217.0 192.0 8.0
29.0 66.0 189.0
0.0 0.0 106.0
67.0 23.0 170.0
120.0 192.0 19.0
33.0 217.0 192.0
176.0 152.0 241.0
188.0 0.0 0.0
107.0 67.0 152.0
204.0 120.0 192.0
250.0 234.0 216.0
192.0 80.0 79.0
247.0 188.0 0.0
0.0 106.0 67.0
54.0 171.0 128.0
192.0 118.0 250.0
199.0 192.0 104.0
41.0 9.0 189.0
0.0 0.0 54.0
67.0 166.0 244.0
128.0 192.0 50.0
185.0 198.0 192.0
120.0 182.0 17.0
189.0 0.0 0.0
39.0 67.0 158.0
61.0 129.0 192.0
184.0 123.0 197.0
192.0 160.0 165.0
16.0 189.0 0.0
0.0 24.0 67.0
235.0 167.0 129.0
192.0 172.0 167.0
195.0 192.0 136.0
37.0 39.0 189.0
0.0 0.0 21.0
67.0 72.0 18.0
130.0 192.0 216.0
213.0 193.0 192.0
88.0 68.0 48.0
189.0 0.0 0.0
8.0 67.0 173.0
172.0 130.0 192.0
183.0 44.0 191.0
192.0 168.0 229.0
83.0 189.0 0.0
0.0 242.0 66.0
192.0 103.0 131.0
192.0 166.0 243.0
187.0 192.0 8.0
179.0 124.0 189.0
0.0 0.0 248.0
66.0 253.0 133.0
112.0 192.0 189.0
239.0 28.0 193.0
236.0 70.0 14.0
63.0 0.0 0.0
32.0 66.0 100.0
123.0 112.0 192.0
238.0 112.0 27.0
193.0 88.0 133.0
239.0 62.0 0.0
0.0 160.0 66.0
45.0 49.0 112.0
192.0 45.0 59.0
27.0 193.0 138.0
86.0 199.0 62.0
0.0 0.0 192.0
66.0 212.0 249.0
111.0 192.0 59.0
175.0 26.0 193.0
137.0 84.0 159.0
62.0 0.0 0.0
250.0 66.0 215.0
205.0 111.0 192.0
20.0 246.0 25.0
193.0 202.0 148.0
112.0 62.0 0.0
0.0 52.0 67.0
176.0 96.0 111.0
192.0 70.0 95.0
26.0 193.0 226.0
4.0 35.0 62.0
0.0 0.0 31.0
67.0 154.0 250.0
110.0 192.0 118.0
159.0 26.0 193.0
130.0 254.0 168.0
61.0 0.0 0.0
226.0 66.0 56.0
176.0 110.0 192.0
22.0 101.0 26.0
193.0 64.0 88.0
234.0 59.0 0.0
0.0 0.0 67.0
31.0 178.0 112.0
192.0 89.0 17.0
17.0 193.0 160.0
101.0 0.0 188.0
0.0 0.0 218.0
66.0 159.0 29.0
114.0 192.0 194.0
133.0 10.0 193.0
96.0 85.0 120.0
188.0 0.0 0.0
166.0 66.0 134.0
59.0 115.0 192.0
246.0 119.0 5.0
193.0 224.0 48.0
129.0 188.0 0.0
0.0 218.0 66.0
230.0 4.0 116.0
192.0 40.0 226.0
1.0 193.0 48.0
139.0 137.0 188.0
0.0 0.0 248.0
66.0 245.0 154.0
116.0 192.0 94.0
98.0 254.0 192.0
0.0 166.0 146.0
188.0 0.0 0.0
0.0 67.0 117.0
38.0 117.0 192.0
214.0 143.0 249.0
192.0 0.0 43.0
107.0 188.0 0.0
0.0 1.0 67.0
216.0 140.0 117.0
192.0 110.0 242.0
245.0 192.0 0.0
241.0 83.0 188.0
0.0 0.0 8.0
67.0 101.0 205.0
117.0 192.0 43.0
118.0 243.0 192.0
112.0 42.0 131.0
188.0 0.0 0.0
17.0 67.0 207.0
16.0 118.0 192.0
23.0 6.0 241.0
192.0 128.0 12.0
126.0 188.0 0.0
0.0 43.0 67.0
149.0 66.0 118.0
192.0 88.0 30.0
239.0 192.0 240.0
46.0 138.0 188.0
0.0 0.0 64.0
67.0 212.0 129.0
118.0 192.0 202.0
253.0 236.0 192.0
96.0 141.0 75.0
188.0 0.0 0.0
93.0 67.0 200.0
148.0 118.0 192.0
2.0 243.0 235.0
192.0 144.0 57.0
151.0 188.0 0.0
0.0 95.0 67.0
238.0 167.0 118.0
192.0 231.0 240.0
234.0 192.0 80.0
119.0 191.0 188.0
0.0 0.0 111.0
67.0 88.0 202.0
118.0 192.0 176.0
166.0 233.0 192.0
128.0 100.0 184.0
188.0 0.0 0.0
120.0 67.0 25.0
226.0 118.0 192.0
194.0 161.0 232.0
192.0 160.0 2.0
195.0 188.0 0.0
0.0 122.0 67.0
60.0 8.0 119.0
192.0 4.0 95.0
231.0 192.0 48.0
75.0 158.0 188.0
0.0 0.0 124.0
67.0 193.0 33.0
119.0 192.0 228.0
103.0 230.0 192.0
176.0 38.0 147.0
188.0 0.0 0.0
126.0 67.0 215.0
48.0 119.0 192.0
190.0 171.0 229.0
192.0 16.0 200.0
158.0 188.0 0.0
0.0 126.0 67.0
216.0 49.0 119.0
192.0 225.0 53.0
229.0 192.0 240.0
156.0 206.0 188.0
0.0 0.0 126.0
67.0 86.0 51.0
119.0 192.0 227.0
191.0 228.0 192.0
64.0 185.0 249.0
188.0 0.0 0.0
126.0 67.0 90.0
67.0 119.0 192.0
171.0 14.0 228.0
192.0 208.0 216.0
244.0 188.0 0.0
0.0 106.0 67.0
229.0 85.0 119.0
192.0 138.0 89.0
227.0 192.0 176.0
64.0 227.0 188.0
0.0 0.0 107.0
67.0 208.0 103.0
119.0 192.0 209.0
173.0 226.0 192.0
96.0 222.0 206.0
188.0 0.0 0.0
108.0 67.0 48.0
93.0 119.0 192.0
123.0 116.0 226.0
192.0 168.0 83.0
9.0 189.0 0.0
0.0 107.0 67.0
44.0 114.0 119.0
192.0 162.0 198.0
225.0 192.0 80.0
234.0 236.0 188.0
0.0 0.0 109.0
67.0 12.0 104.0
119.0 192.0 152.0
140.0 225.0 192.0
120.0 76.0 21.0
189.0 0.0 0.0
107.0 67.0 92.0
109.0 119.0 192.0
72.0 29.0 225.0
192.0 104.0 88.0
25.0 189.0 0.0
0.0 107.0 67.0
34.0 115.0 119.0
192.0 51.0 175.0
224.0 192.0 200.0
65.0 27.0 189.0
0.0 0.0 107.0
67.0 67.0 137.0
119.0 192.0 167.0
17.0 224.0 192.0
208.0 122.0 255.0
188.0 0.0 0.0
109.0 67.0 19.0
128.0 119.0 192.0
76.0 215.0 223.0
192.0 32.0 210.0
24.0 189.0 0.0
0.0 109.0 67.0
16.0 137.0 119.0
192.0 170.0 104.0
223.0 192.0 144.0
96.0 17.0 189.0
0.0 0.0 109.0
67.0 183.0 109.0
119.0 192.0 183.0
94.0 223.0 192.0
112.0 158.0 72.0
189.0 0.0 0.0
108.0 67.0 56.0
119.0 119.0 192.0
9.0 241.0 222.0
192.0 248.0 69.0
62.0 189.0 0.0
0.0 108.0 67.0
89.0 127.0 119.0
192.0 74.0 138.0
222.0 192.0 8.0
62.0 53.0 189.0
0.0 0.0 109.0
67.0 172.0 118.0
119.0 192.0 65.0
77.0 222.0 192.0
160.0 34.0 73.0
189.0 0.0 0.0
108.0 67.0 130.0
127.0 119.0 192.0
66.0 233.0 221.0
192.0 8.0 232.0
60.0 189.0 0.0
0.0 108.0 67.0
208.0 136.0 119.0
192.0 158.0 135.0
221.0 192.0 152.0
225.0 46.0 189.0
0.0 0.0 107.0
67.0 161.0 128.0
119.0 192.0 4.0
75.0 221.0 192.0
136.0 93.0 63.0
189.0 0.0 0.0
107.0 67.0 166.0
138.0 119.0 192.0
184.0 236.0 220.0
192.0 232.0 89.0
46.0 189.0 0.0
0.0 108.0 67.0
185.0 130.0 119.0
192.0 52.0 176.0
220.0 192.0 136.0
202.0 60.0 189.0
0.0 0.0 106.0
67.0 137.0 143.0
119.0 192.0 88.0
82.0 220.0 192.0
104.0 52.0 37.0
189.0 0.0 0.0
107.0 67.0 242.0
114.0 119.0 192.0
252.0 52.0 220.0
192.0 136.0 61.0
87.0 189.0 0.0
0.0 106.0 67.0
79.0 128.0 119.0
192.0 193.0 217.0
219.0 192.0 240.0
55.0 61.0 189.0
0.0 0.0 106.0
67.0 189.0 120.0
119.0 192.0 140.0
156.0 219.0 192.0
208.0 4.0 72.0
189.0 0.0 0.0
106.0 67.0 191.0
132.0 119.0 192.0
178.0 72.0 219.0
192.0 216.0 44.0
47.0 189.0 0.0
0.0 106.0 67.0
121.0 125.0 119.0
192.0 72.0 12.0
219.0 192.0 248.0
16.0 56.0 189.0
0.0 0.0 105.0
67.0 58.0 138.0
119.0 192.0 11.0
189.0 218.0 192.0
0.0 206.0 28.0
189.0 0.0 0.0
104.0 67.0 66.0
131.0 119.0 192.0
166.0 129.0 218.0
192.0 48.0 220.0
35.0 189.0 0.0
0.0 104.0 67.0
197.0 144.0 119.0
192.0 75.0 55.0
218.0 192.0 8.0
91.0 6.0 189.0
0.0 0.0 106.0
67.0 122.0 117.0
119.0 192.0 215.0
9.0 218.0 192.0
40.0 153.0 47.0
189.0 0.0 0.0
106.0 67.0 172.0
110.0 119.0 192.0
129.0 205.0 217.0
192.0 208.0 69.0
52.0 189.0 0.0
0.0 106.0 67.0
2.0 125.0 119.0
192.0 15.0 136.0
217.0 192.0 192.0
238.0 19.0 189.0
0.0 0.0 106.0
67.0 140.0 118.0
119.0 192.0 59.0
77.0 217.0 192.0
224.0 231.0 22.0
189.0 0.0 0.0
106.0 67.0 11.0
136.0 119.0 192.0
170.0 12.0 217.0
192.0 176.0 88.0
225.0 188.0 0.0
0.0 106.0 67.0
248.0 129.0 119.0
192.0 190.0 211.0
216.0 192.0 240.0
16.0 228.0 188.0
0.0 0.0 106.0
67.0 163.0 99.0
119.0 192.0 19.0
156.0 216.0 192.0
192.0 35.0 27.0
189.0 0.0 0.0
106.0 67.0 104.0
71.0 119.0 192.0
46.0 96.0 216.0
192.0 72.0 110.0
63.0 189.0 0.0
0.0 104.0 67.0
123.0 87.0 119.0
192.0 209.0 37.0
216.0 192.0 104.0
12.0 26.0 189.0
0.0 0.0 106.0
67.0 142.0 81.0
119.0 192.0 196.0
234.0 215.0 192.0
48.0 84.0 24.0
189.0 0.0 0.0
106.0 67.0 194.0
11.0 118.0 192.0
162.0 44.0 209.0
192.0 200.0 100.0
15.0 189.0 0.0
0.0 84.0 67.0
199.0 215.0 117.0
192.0 204.0 145.0
208.0 192.0 224.0
60.0 44.0 189.0
0.0 0.0 90.0
67.0 168.0 189.0
117.0 192.0 91.0
